ply
format ascii 1.0
element vertex 1279
property float x
property float y
property float z
property uchar red
property uchar green
property uchar blue
element face 0
property list uchar int vertex_index
end_header
0.198913 -0.320334 -0.360876 133 0 122
0.652386 -0.333487 -0.351710 207 0 48
0.001667 0.000780 0.014905 4 0 251
0.044954 -0.040643 0.141887 39 0 216
0.099351 0.214830 0.300648 98 0 157
-0.181477 0.198968 0.318408 106 0 149
0.062173 -0.071867 0.185295 53 0 202
-0.229110 0.059424 0.300648 98 0 157
0.324471 0.151784 0.355088 129 0 126
0.000003 0.000004 -0.000308 0 0 255
-0.102795 -0.566848 0.384020 177 0 78
-0.252164 -0.330370 0.370709 142 0 113
0.382525 0.667038 0.336441 214 0 41
-0.412620 0.138474 0.374709 146 0 109
0.465476 -0.339434 -0.384020 177 0 78
0.378242 -0.486659 0.380317 185 0 70
-0.036974 0.016903 0.111025 30 0 225
0.932506 -0.181778 -0.177089 246 0 9
0.334262 0.517854 0.380317 185 0 70
-0.444993 0.454836 0.377371 189 0 66
-0.006655 0.002364 -0.036127 9 0 246
0.145249 -0.186883 -0.300648 98 0 157
0.740070 -0.500966 0.249296 237 0 18
0.009695 0.006318 -0.049834 13 0 242
0.137334 0.019356 -0.229249 68 0 187
0.335745 0.171626 0.360876 133 0 122
-0.809297 0.497644 -0.177089 246 0 9
-0.033515 0.850637 -0.286548 229 0 26
-0.029549 -0.148129 0.240056 72 0 183
0.053206 0.004668 -0.131382 36 0 219
0.188394 -0.830189 -0.286548 229 0 26
-0.978795 -0.199708 0.026305 255 0 0
0.158722 0.153934 -0.291228 93 0 162
0.796723 0.602624 -0.026305 255 0 0
-0.000146 0.000001 0.002766 1 0 254
0.877529 -0.337880 0.192410 245 0 10
0.253940 0.304132 -0.366091 138 0 117
-0.420509 0.477563 -0.377371 189 0 66
-0.828281 -0.550170 -0.061158 254 0 1
-0.000005 0.000001 0.000308 0 0 255
-0.672705 0.174479 -0.364147 200 0 55
-0.879371 0.038501 0.262272 234 0 21
0.566638 -0.654987 -0.274698 232 0 23
0.295292 0.494658 -0.384020 177 0 78
-0.350168 -0.223860 -0.370709 142 0 113
0.000041 -0.000343 0.004908 1 0 254
-0.494214 -0.030312 -0.382821 160 0 95
0.117523 -0.990165 -0.043779 255 0 0
-0.008610 0.003058 0.042739 11 0 244
0.183486 0.219753 0.326685 111 0 144
0.020369 -0.042095 0.121084 33 0 222
-0.246113 0.966265 -0.043779 255 0 0
-0.947053 0.317827 0.026305 255 0 0
-0.000771 0.007020 0.036127 9 0 246
0.001156 0.017585 -0.065387 17 0 238
0.272194 0.088705 0.326685 111 0 144
-0.421070 -0.219911 0.380782 155 0 100
0.254900 0.352784 0.374709 146 0 109
0.000819 -0.000823 0.010987 3 0 252
-0.312233 0.944059 0.061158 254 0 1
0.175683 -0.226039 0.326685 111 0 144
0.298141 -0.708786 0.336441 214 0 41
0.059493 -0.048364 -0.163382 46 0 209
-0.014642 0.114771 -0.207346 61 0 194
0.014720 -0.031829 0.101236 27 0 228
0.064314 -0.978515 -0.112358 252 0 3
0.146901 -0.598601 0.380317 185 0 70
-0.621547 -0.310892 -0.364147 200 0 55
-0.878129 -0.458618 0.078405 253 0 2
-0.200696 -0.227926 0.334520 115 0 140
-0.798809 -0.530593 0.161390 248 0 7
0.199760 -0.180604 -0.318408 106 0 149
-0.542414 0.402856 -0.369284 196 0 59
-0.145523 -0.040475 0.240056 72 0 183
-0.020222 -0.073957 0.163382 46 0 209
-0.625555 -0.197822 0.373693 193 0 62
0.223013 -0.118968 -0.309718 102 0 153
0.680694 -0.426819 -0.318431 220 0 35
-0.569981 -0.720259 -0.221793 241 0 14
0.050186 0.033972 0.141887 39 0 216
0.008864 -0.002216 0.042739 11 0 244
0.092972 0.183858 -0.281491 89 0 166
-0.225436 -0.771166 0.318431 220 0 35
-0.345252 -0.885106 0.177089 246 0 9
0.169541 0.890460 0.235793 239 0 16
-0.090480 0.981939 0.095484 253 0 2
-0.320094 0.113693 0.348748 124 0 131
0.119909 -0.185769 0.291228 93 0 162
0.163065 -0.017187 -0.250719 76 0 179
-0.137160 0.020557 -0.229249 68 0 187
-0.664084 -0.702975 -0.145346 249 0 6
-0.282162 -0.570333 0.377371 189 0 66
0.314010 -0.922281 -0.128990 251 0 4
0.156347 0.821159 -0.297801 226 0 29
0.093689 0.134566 -0.250719 76 0 179
-0.001571 0.014307 0.057392 15 0 240
0.932244 0.358947 0.026305 255 0 0
0.000325 0.000590 -0.007651 2 0 253
0.428723 -0.847826 -0.177089 246 0 9
-0.313680 0.948434 -0.026305 255 0 0
0.164318 -0.124287 0.281491 89 0 166
0.022816 0.011164 0.082593 22 0 233
-0.000004 -0.000004 0.000308 0 0 255
-0.002024 -0.003324 0.024436 6 0 249
-0.130592 -0.477611 0.382821 160 0 95
-0.227296 0.439890 -0.382821 160 0 95
0.005917 0.003856 -0.036127 9 0 246
0.271733 0.900212 -0.192410 245 0 10
0.011064 0.022865 -0.082593 22 0 233
0.510637 -0.733431 -0.249296 237 0 18
0.512045 0.857749 0.026305 255 0 0
0.203434 -0.086621 0.291228 93 0 162
0.335672 -0.540573 -0.377371 189 0 66
0.060122 0.166950 -0.261202 81 0 174
-0.228003 0.109099 -0.309718 102 0 153
-0.971251 -0.076653 -0.128990 251 0 4
0.809856 -0.344833 -0.262272 234 0 21
-0.117194 0.048694 -0.218334 64 0 191
-0.018286 -0.835710 0.297801 226 0 29
-0.005131 0.010372 -0.049834 13 0 242
0.341261 0.852756 -0.221793 241 0 14
0.019996 0.415128 0.370709 142 0 113
-0.825755 -0.449831 -0.192410 245 0 10
0.000153 -0.001834 0.014905 4 0 251
-0.022090 0.012540 -0.082593 22 0 233
0.013616 -0.163402 0.250719 76 0 179
0.432745 0.855779 -0.161390 248 0 7
0.057878 -0.573179 0.384020 177 0 78
0.235468 0.653858 -0.364147 200 0 55
-0.000311 -0.000149 0.004908 1 0 254
0.004606 -0.002668 0.030020 8 0 247
-0.070808 0.077632 -0.196321 57 0 198
-0.007050 0.012547 0.057392 15 0 240
-0.067778 0.531280 0.384834 168 0 87
0.839324 -0.526286 0.078405 253 0 2
-0.029399 0.267689 0.318408 106 0 149
0.007571 -0.008751 -0.049834 13 0 242
-0.492851 0.047589 -0.382821 160 0 95
0.302836 0.943256 0.078405 253 0 2
0.058315 0.075031 -0.185295 53 0 202
0.068093 0.005974 0.152565 43 0 212
0.782735 0.181230 0.318431 220 0 35
-0.000043 0.000002 -0.001231 0 0 255
-0.630954 -0.742362 -0.128990 251 0 4
0.000647 -0.000186 0.007651 2 0 253
-0.004217 0.003248 0.030020 8 0 247
-0.012616 0.017143 -0.073796 20 0 235
0.019864 0.007648 0.073796 20 0 235
0.004572 -0.094918 0.185295 53 0 202
-0.564811 -0.333828 0.373693 193 0 62
-0.001159 0.000071 0.010987 3 0 252
0.060841 -0.730150 -0.351710 207 0 48
-0.387672 -0.819374 -0.235793 239 0 16
-0.088529 0.056596 0.196321 57 0 198
0.003340 0.004145 0.030020 8 0 247
-0.528040 0.558963 0.336441 214 0 41
-0.803476 -0.419630 0.235793 239 0 16
0.145999 0.074632 0.250719 76 0 179
0.202700 -0.122210 -0.300648 98 0 157
-0.000127 -0.000072 -0.002766 1 0 254
0.000007 -0.000146 0.002766 1 0 254
0.033482 -0.160513 -0.250719 76 0 179
0.769250 -0.427821 0.262272 234 0 21
-0.003814 0.000778 0.024436 6 0 249
-0.013961 0.021220 0.082593 22 0 233
0.022816 -0.011164 -0.082593 22 0 233
-0.159503 0.174875 -0.300648 98 0 157
-0.721214 0.618435 -0.177089 246 0 9
-0.000273 0.000211 0.004908 1 0 254
0.000005 0.000002 -0.000308 0 0 255
-0.416110 -0.805305 0.235793 239 0 16
0.011855 0.017679 0.073796 20 0 235
0.509682 0.853792 -0.061158 254 0 1
0.001542 0.001005 -0.014905 4 0 251
-0.880180 -0.007703 0.262272 234 0 21
-0.176770 0.974779 -0.078405 253 0 2
0.002333 0.008834 0.042739 11 0 244
-0.002362 0.003094 0.024436 6 0 249
0.351665 0.256441 0.374709 146 0 109
0.746377 0.651432 0.078405 253 0 2
-0.504519 -0.862197 -0.026305 255 0 0
-0.210546 0.139851 0.309718 102 0 153
0.112061 -0.081717 -0.229249 68 0 187
-0.100511 -0.343827 -0.355088 129 0 126
-0.860477 -0.098314 0.274698 232 0 23
0.010720 0.033390 -0.101236 27 0 228
-0.470105 0.872034 -0.078405 253 0 2
-0.003431 -0.021007 -0.073796 20 0 235
0.067283 0.390455 -0.366091 138 0 117
-0.678118 -0.561188 0.262272 234 0 21
0.041080 -0.266147 0.318408 106 0 149
0.038069 -0.056772 -0.152565 43 0 212
-0.006616 0.060241 0.141887 39 0 216
-0.787247 -0.584697 0.112358 252 0 3
-0.000042 -0.000009 -0.001231 0 0 255
-0.050806 -0.892238 -0.249296 237 0 18
-0.004157 0.950050 -0.177089 246 0 9
-0.746848 -0.534668 0.221793 241 0 14
0.014285 0.001759 -0.057392 15 0 240
-0.096991 -0.099137 -0.229249 68 0 187
-0.419278 0.529822 0.369284 196 0 59
-0.076733 0.207366 0.291228 93 0 162
0.748670 0.334377 0.308435 223 0 32
-0.249968 -0.230005 0.348748 124 0 131
-0.866042 0.007579 0.274698 232 0 23
-0.441219 0.818451 -0.207322 243 0 12
0.402638 0.912207 0.043779 255 0 0
0.416808 -0.556099 0.364147 200 0 55
-0.199450 0.095437 -0.291228 93 0 162
0.411542 -0.058002 0.370709 142 0 113
0.101555 0.744112 0.344424 211 0 44
-0.857559 0.486809 0.095484 253 0 2
0.004652 0.002587 0.030020 8 0 247
-0.035640 -0.218216 0.291228 93 0 162
-0.014441 0.031957 0.101236 27 0 228
0.016976 0.012840 0.073796 20 0 235
0.103923 0.143830 -0.261202 81 0 174
-0.000630 0.000236 0.007651 2 0 253
0.087505 -0.309364 -0.341883 120 0 135
-0.289692 -0.930206 0.128990 251 0 4
-0.029029 -0.007529 0.091749 25 0 230
0.917507 -0.246562 0.177089 246 0 9
-0.157039 -0.961532 -0.128990 251 0 4
-0.003796 -0.013883 0.057392 15 0 240
-0.039970 0.007429 -0.111025 30 0 225
-0.843766 0.250671 -0.262272 234 0 21
0.437106 0.794105 0.235793 239 0 16
0.081465 -0.239273 -0.309718 102 0 153
0.169137 -0.252234 0.334520 115 0 140
-0.130176 0.333727 -0.355088 129 0 126
-0.366783 -0.362000 0.384176 164 0 91
-0.077815 0.035574 -0.174303 50 0 205
-0.008120 0.011883 -0.057392 15 0 240
0.060594 0.001061 -0.141887 39 0 216
-0.055749 0.979040 0.112358 252 0 3
0.989642 0.121855 -0.043779 255 0 0
0.029216 -0.006765 -0.091749 25 0 230
-0.294382 -0.447428 -0.384834 168 0 87
0.298034 0.369913 0.380782 155 0 100
0.000000 0.000000 -0.000000 0 0 255
0.000772 0.001670 0.014905 4 0 251
-0.394981 0.031173 -0.366091 138 0 117
0.449352 0.645407 0.327772 217 0 38
-0.543074 -0.433642 0.364147 200 0 55
-0.004335 0.990668 0.078405 253 0 2
-0.132662 0.117847 -0.261202 81 0 174
0.461174 0.615291 0.336441 214 0 41
-0.964050 0.076085 -0.145346 249 0 6
-0.016707 0.005607 0.065387 17 0 238
-0.002343 -0.535581 0.384834 168 0 87
-0.048652 -0.036135 0.141887 39 0 216
0.206803 -0.145330 0.309718 102 0 153
0.008869 -0.675594 0.369284 196 0 59
0.326454 0.093884 0.348748 124 0 131
0.132698 0.138029 0.271471 85 0 170
-0.036161 0.917793 -0.221793 241 0 14
-0.129414 0.415551 -0.374709 146 0 109
0.161938 -0.025721 0.250719 76 0 179
0.162363 0.022883 -0.250719 76 0 179
-0.615773 0.026960 -0.380317 185 0 70
-0.756936 0.649066 0.043779 255 0 0
0.046307 0.006526 -0.121084 33 0 222
0.984771 0.156414 -0.043779 255 0 0
-0.186906 0.041555 0.271471 85 0 170
-0.020013 -0.268554 -0.318408 106 0 149
-0.224045 0.117012 -0.309718 102 0 153
0.462794 0.107153 0.380782 155 0 100
-0.047285 0.513164 0.384176 164 0 91
0.164794 -0.276055 -0.341883 120 0 135
-0.001982 -0.006779 -0.036127 9 0 246
-0.002627 0.000781 0.019392 5 0 250
-0.065215 -0.511195 -0.384176 164 0 91
-0.819916 0.007175 0.308435 223 0 32
-0.287577 -0.213587 0.355088 129 0 126
-0.229059 0.484133 0.384834 168 0 87
0.063928 -0.633094 0.377371 189 0 66
-0.433879 0.137207 -0.378073 151 0 104
-0.000365 0.001103 0.010987 3 0 252
-0.400479 0.544171 -0.369284 196 0 59
0.150425 0.162052 -0.291228 93 0 162
-0.359520 -0.113693 0.360876 133 0 122
0.871600 -0.122841 -0.262272 234 0 21
0.022214 -0.219989 0.291228 93 0 162
-0.216113 0.915158 -0.192410 245 0 10
0.000918 0.009090 0.042739 11 0 244
-0.049322 0.020493 -0.131382 36 0 219
-0.469763 0.836031 -0.161390 248 0 7
-0.691747 0.066794 0.364147 200 0 55
0.000343 -0.000042 0.004908 1 0 254
-0.163393 -0.214067 -0.318408 106 0 149
-0.172554 0.951529 -0.145346 249 0 6
0.268923 0.098176 -0.326685 111 0 144
0.484672 0.845161 0.128990 251 0 4
-0.000001 0.000005 0.000308 0 0 255
-0.075222 -0.102212 -0.218334 64 0 191
0.532911 -0.554321 0.336441 214 0 41
0.031566 0.655329 -0.373693 193 0 62
-0.054875 -0.040756 0.152565 43 0 212
-0.043254 -0.393841 -0.366091 138 0 117
-0.000145 -0.000014 -0.002766 1 0 254
-0.290744 -0.425490 -0.384176 164 0 91
-0.042812 0.574500 -0.384020 177 0 78
0.737135 -0.143694 0.344424 211 0 44
-0.095039 0.744972 -0.344424 211 0 44
0.942491 0.325500 -0.043779 255 0 0
0.350296 0.921783 -0.095484 253 0 2
0.345515 0.460981 0.384020 177 0 78
-0.476277 -0.580669 -0.344424 211 0 44
0.033175 0.078868 0.174303 50 0 205
0.000000 0.000000 0.000000 0 0 255
-0.992504 0.113399 -0.026305 255 0 0
0.960048 -0.276098 0.026305 255 0 0
0.007382 -0.005383 -0.042739 11 0 244
0.731095 0.238255 -0.336441 214 0 41
0.113564 -0.022138 -0.207346 61 0 194
-0.033864 -0.078575 -0.174303 50 0 205
0.150215 0.015833 -0.240056 72 0 183
-0.443925 0.859135 -0.145346 249 0 6
-0.000506 -0.115700 -0.207346 61 0 194
0.034298 0.007311 0.101236 27 0 228
-0.542602 0.120638 0.384785 172 0 83
0.000668 -0.000082 0.007651 2 0 253
-0.004583 -0.002709 -0.030020 8 0 247
0.004822 0.002256 -0.030020 8 0 247
-0.115590 0.005061 0.207346 61 0 194
-0.552551 0.605807 0.308435 223 0 32
0.017451 -0.002459 0.065387 17 0 238
-0.239225 0.363596 0.374709 146 0 109
0.489976 -0.159677 -0.384176 164 0 91
-0.721829 0.687897 0.043779 255 0 0
0.328672 0.422880 -0.384834 168 0 87
0.904473 -0.159936 -0.221793 241 0 14
-0.086924 0.154697 -0.261202 81 0 174
0.002794 -0.002710 0.024436 6 0 249
-0.084354 -0.062650 0.196321 57 0 198
-0.030961 -0.785817 0.327772 217 0 38
-0.436965 0.462554 -0.377371 189 0 66
-0.040782 0.172696 -0.261202 81 0 174
0.000094 0.000332 0.004908 1 0 254
-0.039303 0.036165 0.131382 36 0 219
-0.000012 -0.000041 -0.001231 0 0 255
-0.428228 0.354387 -0.384785 172 0 83
-0.423692 0.895504 0.078405 253 0 2
0.005089 0.007589 -0.042739 11 0 244
-0.067634 -0.066752 0.185295 53 0 202
-0.777425 0.307175 -0.297801 226 0 29
-0.589562 -0.745002 -0.177089 246 0 9
0.000004 0.000003 0.000308 0 0 255
-0.547787 0.323766 -0.377371 189 0 66
-0.014231 0.026398 -0.091749 25 0 230
0.024383 -0.032532 0.111025 30 0 225
-0.347740 -0.508901 0.380317 185 0 70
0.121207 0.067410 0.229249 68 0 187
0.206325 0.683525 -0.358287 204 0 51
0.095940 -0.042849 0.196321 57 0 198
-0.034906 -0.003370 -0.101236 27 0 228
-0.000000 -0.000000 -0.000000 0 0 255
-0.001145 0.000192 0.010987 3 0 252
0.189577 -0.391779 -0.374709 146 0 109
0.146044 -0.226259 -0.318408 106 0 149
0.825723 0.558946 -0.043779 255 0 0
0.000157 0.001151 -0.010987 3 0 252
-0.985155 0.043133 0.095484 253 0 2
-0.226633 0.959702 -0.095484 253 0 2
0.137927 0.014537 0.229249 68 0 187
0.682308 -0.685300 0.145346 249 0 6
-0.000489 0.002697 0.019392 5 0 250
0.002794 0.002710 0.024436 6 0 249
-0.534582 -0.032788 0.384834 168 0 87
-0.765392 -0.527931 -0.207322 243 0 12
0.169649 0.052020 -0.261202 81 0 174
-0.835878 -0.007315 -0.297801 226 0 29
-0.724746 0.346789 -0.318431 220 0 35
0.523128 0.563562 -0.336441 214 0 41
0.411393 0.142079 -0.374709 146 0 109
-0.745583 0.440672 -0.274698 232 0 23
-0.954515 -0.247572 0.095484 253 0 2
0.477606 -0.193560 0.384176 164 0 91
0.080360 -0.067697 -0.196321 57 0 198
0.241895 0.118359 0.318408 106 0 149
-0.001414 -0.003626 -0.024436 6 0 249
-0.412087 0.484850 -0.377371 189 0 66
-0.126948 0.256598 0.326685 111 0 144
-0.299504 0.050262 -0.334520 115 0 140
-0.995245 0.061042 0.043779 255 0 0
0.147154 -0.034071 -0.240056 72 0 183
0.593995 0.052113 0.382532 181 0 74
0.090351 0.029444 -0.185295 53 0 202
0.044861 -0.106650 -0.207346 61 0 194
-0.958702 -0.230829 -0.095484 253 0 2
-0.020507 -0.005704 0.073796 20 0 235
-0.412087 -0.484850 0.377371 189 0 66
0.184216 -0.285396 0.348748 124 0 131
-0.007033 0.321425 0.341883 120 0 135
0.092972 -0.183858 0.281491 89 0 166
0.000000 0.000000 0.000000 0 0 255
0.000000 -0.000000 -0.000000 0 0 255
-0.217259 -0.852980 0.262272 234 0 21
-0.002583 -0.000917 -0.019392 5 0 250
-0.133289 0.455954 0.380782 155 0 100
-0.028079 -0.010530 -0.091749 25 0 230
0.034444 -0.021598 -0.111025 30 0 225
0.005032 -0.060394 -0.141887 39 0 216
-0.166536 0.834848 -0.286548 229 0 26
0.673067 0.059051 -0.369284 196 0 59
-0.123092 0.521249 0.384834 168 0 87
0.952312 -0.255916 0.095484 253 0 2
-0.301095 0.157252 0.348748 124 0 131
-0.028109 -0.713432 -0.358287 204 0 51
-0.468683 0.214266 -0.384176 164 0 91
0.005402 0.010234 0.049834 13 0 242
0.205902 0.007210 0.281491 89 0 166
0.102872 0.127683 0.250719 76 0 179
-0.801009 0.492548 -0.192410 245 0 10
-0.000092 -0.000113 -0.002766 1 0 254
-0.303801 -0.151959 -0.348748 124 0 131
0.000132 0.000062 0.002766 1 0 254
-0.000551 0.001022 -0.010987 3 0 252
0.187560 0.899151 0.221793 241 0 14
-0.671285 0.076698 0.369284 196 0 59
-0.183750 0.524601 0.384785 172 0 83
-0.003723 0.003805 0.030020 8 0 247
-0.199928 -0.540289 -0.384020 177 0 78
-0.653115 0.370752 0.344424 211 0 44
-0.797008 -0.252041 -0.297801 226 0 29
-0.983048 -0.182716 0.008775 255 0 0
-0.001738 0.002119 0.019392 5 0 250
0.418282 -0.120293 0.374709 146 0 109
0.032866 -0.050917 -0.141887 39 0 216
-0.043269 0.095752 -0.196321 57 0 198
-0.569265 0.363928 0.369284 196 0 59
-0.494098 0.811467 -0.177089 246 0 9
-0.723165 0.689170 -0.026305 255 0 0
0.309964 -0.179561 -0.355088 129 0 126
-0.062654 -0.027328 -0.152565 43 0 212
-0.000838 0.009098 0.042739 11 0 244
0.009212 0.191248 -0.271471 85 0 170
-0.619908 0.783349 -0.026305 255 0 0
-0.126135 -0.057665 0.229249 68 0 187
0.187933 -0.036635 0.271471 85 0 170
-0.515728 -0.545931 -0.344424 211 0 44
0.873159 -0.446342 -0.112358 252 0 3
0.167456 0.971776 -0.095484 253 0 2
-0.014087 0.051519 -0.131382 36 0 219
-0.004995 -0.013498 -0.057392 15 0 240
0.005793 0.020482 0.073796 20 0 235
0.089265 0.032588 0.185295 53 0 202
-0.018692 -0.010182 0.073796 20 0 235
0.000795 -0.060598 0.141887 39 0 216
0.780083 0.300360 -0.297801 226 0 29
0.769520 -0.501489 -0.221793 241 0 14
-0.650445 0.085874 0.373693 193 0 62
-0.081115 0.027222 0.174303 50 0 205
-0.003124 0.713979 0.358287 204 0 51
0.372316 -0.261644 -0.378073 151 0 104
0.640315 -0.356114 0.351710 207 0 48
-0.452649 -0.388143 -0.382532 181 0 74
0.364539 -0.155219 0.366091 138 0 117
0.802714 -0.446432 -0.221793 241 0 14
-0.047351 -0.200514 -0.281491 89 0 166
0.172873 0.040026 0.261202 81 0 174
0.928523 -0.048798 0.207322 243 0 12
-0.016919 0.024761 0.091749 25 0 230
-0.046677 0.002863 0.121084 33 0 222
-0.004101 0.003394 0.030020 8 0 247
0.006446 -0.006475 0.042739 11 0 244
0.208097 -0.917014 -0.192410 245 0 10
0.143820 -0.755368 0.336441 214 0 41
-0.435857 -0.808505 -0.221793 241 0 14
0.256045 0.083442 -0.318408 106 0 149
0.556355 -0.149510 -0.384020 177 0 78
-0.045465 0.010947 -0.121084 33 0 222
0.350598 -0.377697 -0.384176 164 0 91
0.072821 -0.075747 -0.196321 57 0 198
0.652475 -0.068770 -0.373693 193 0 62
0.142418 0.248345 0.326685 111 0 144
-0.003124 -0.713979 -0.358287 204 0 51
-0.715229 -0.326978 -0.327772 217 0 38
-0.530979 -0.070102 -0.384834 168 0 87
-0.120577 0.604454 -0.380317 185 0 70
-0.210647 -0.425779 0.380782 155 0 100
0.556683 -0.799568 0.128990 251 0 4
-0.526568 0.097872 -0.384834 168 0 87
0.978694 -0.190782 -0.043779 255 0 0
0.027236 -0.071671 -0.163382 46 0 209
0.054297 -0.077988 0.185295 53 0 202
0.012543 0.150525 -0.240056 72 0 183
-0.010349 -0.005177 -0.049834 13 0 242
-0.353058 0.132404 0.360876 133 0 122
0.394705 -0.853479 -0.192410 245 0 10
0.713265 0.559389 0.235793 239 0 16
-0.000345 -0.001109 -0.010987 3 0 252
0.585592 0.810464 0.008775 255 0 0
-0.023684 0.047872 -0.131382 36 0 219
0.002932 0.002559 -0.024436 6 0 249
0.001160 -0.000061 -0.010987 3 0 252
0.007382 0.005383 -0.042739 11 0 244
-0.136252 0.065196 0.240056 72 0 183
-0.080113 0.030044 0.174303 50 0 205
0.000671 -0.000059 0.007651 2 0 253
-0.001486 0.339682 0.348748 124 0 131
-0.118279 0.186811 0.291228 93 0 162
0.287723 0.545086 0.380317 185 0 70
0.013514 -0.044769 0.121084 33 0 222
0.025339 0.001777 -0.082593 22 0 233
-0.372294 0.907207 0.112358 252 0 3
0.000000 -0.000000 -0.000000 0 0 255
-0.262880 -0.058447 0.318408 106 0 149
0.297036 0.562729 0.377371 189 0 66
-0.054449 -0.730655 0.351710 207 0 48
-0.012631 0.115010 -0.207346 61 0 194
-0.682531 0.673630 0.161390 248 0 7
0.421219 -0.870492 -0.145346 249 0 6
0.000000 -0.000000 0.000000 0 0 255
-0.004758 0.013583 -0.057392 15 0 240
0.394127 0.332020 -0.384176 164 0 91
-0.706636 -0.524826 -0.262272 234 0 21
-0.327492 -0.934982 0.078405 253 0 2
0.354203 -0.129309 -0.360876 133 0 122
0.047687 0.037399 -0.141887 39 0 216
0.348024 -0.293182 0.378073 151 0 104
-0.000000 0.000000 -0.000000 0 0 255
-0.008249 0.376978 0.360876 133 0 122
-0.000037 0.000022 0.001231 0 0 255
-0.003874 0.000374 -0.024436 6 0 249
-0.195648 0.476755 0.384176 164 0 91
-0.407521 -0.152829 0.374709 146 0 109
0.000038 -0.000020 0.001231 0 0 255
-0.029693 0.080243 0.174303 50 0 205
0.866075 0.000000 0.274698 232 0 23
-0.313600 0.458939 -0.384785 172 0 83
-0.810891 0.121531 -0.308435 223 0 32
0.000030 0.000143 -0.002766 1 0 254
-0.831156 -0.328405 0.249296 237 0 18
0.115876 0.051753 -0.218334 64 0 191
-0.022711 0.026721 -0.101236 27 0 228
-0.006613 0.002480 -0.036127 9 0 246
0.458082 -0.767354 0.249296 237 0 18
-0.017900 -0.162988 -0.250719 76 0 179
-0.371764 -0.587168 0.364147 200 0 55
0.148619 -0.962869 -0.128990 251 0 4
0.585592 -0.810464 -0.008775 255 0 0
0.194644 0.233116 -0.334520 115 0 140
0.170156 0.336493 0.360876 133 0 122
-0.834402 -0.232077 -0.274698 232 0 23
-0.604587 -0.763989 -0.128990 251 0 4
-0.793998 0.379926 -0.262272 234 0 21
0.013935 0.454843 0.378073 151 0 104
0.051774 -0.512731 0.384176 164 0 91
-0.126670 -0.007769 0.218334 64 0 191
-0.009103 0.019241 0.073796 20 0 235
0.011485 -0.001414 -0.049834 13 0 242
-0.591147 -0.078045 0.382532 181 0 74
0.582352 -0.805980 0.061158 254 0 1
-0.025806 -0.023745 -0.101236 27 0 228
-0.000314 -0.000144 0.004908 1 0 254
0.730886 0.051251 -0.351710 207 0 48
-0.029257 -0.161337 -0.250719 76 0 179
-0.138929 0.211156 -0.309718 102 0 153
-0.013879 0.032205 0.101236 27 0 228
0.040446 -0.065135 -0.163382 46 0 209
-0.827645 0.199275 0.286548 229 0 26
0.222338 -0.081169 -0.300648 98 0 157
0.093911 0.234668 -0.309718 102 0 153
-0.554558 -0.219116 0.382532 181 0 74
-0.229499 0.901036 -0.207322 243 0 12
-0.011250 0.002709 -0.049834 13 0 242
-0.000104 -0.000102 -0.002766 1 0 254
-0.008662 0.002907 0.042739 11 0 244
-0.003441 0.011048 -0.049834 13 0 242
-0.001917 -0.001959 -0.019392 5 0 250
-0.000664 -0.000111 0.007651 2 0 253
0.051774 -0.512731 -0.384176 164 0 91
0.507465 0.089734 0.384176 164 0 91
-0.389538 0.072402 -0.366091 138 0 117
0.070126 0.078249 0.196321 57 0 198
-0.000100 -0.000106 -0.002766 1 0 254
0.175572 -0.158736 -0.300648 98 0 157
-0.226376 -0.551634 -0.382532 181 0 74
0.060180 0.212760 0.291228 93 0 162
-0.017934 -0.011465 -0.073796 20 0 235
0.343273 -0.511925 0.380317 185 0 70
-0.000005 0.000001 -0.000308 0 0 255
-0.309860 -0.436852 0.384834 168 0 87
0.012194 0.007646 0.057392 15 0 240
0.000141 -0.000038 -0.002766 1 0 254
-0.457774 -0.751811 0.262272 234 0 21
-0.000097 -0.000331 0.004908 1 0 254
-0.017622 0.000154 -0.065387 17 0 238
-0.002623 -0.002876 0.024436 6 0 249
-0.080065 0.051185 0.185295 53 0 202
0.716581 -0.398529 -0.308435 223 0 32
0.527465 -0.849441 0.008775 255 0 0
0.000000 -0.000000 0.000000 0 0 255
-0.184711 -0.328728 0.360876 133 0 122
0.675238 0.023646 0.369284 196 0 59
-0.010936 -0.013819 -0.065387 17 0 238
0.008207 0.004016 0.042739 11 0 244
-0.602241 -0.660285 0.249296 237 0 18
0.636216 -0.011136 0.377371 189 0 66
-0.353058 -0.132404 -0.360876 133 0 122
0.917413 0.390630 0.043779 255 0 0
-0.337507 0.207536 -0.366091 138 0 117
-0.819154 -0.357292 0.249296 237 0 18
-0.000006 0.000043 0.001231 0 0 255
0.000320 -0.000130 -0.004908 1 0 254
0.075491 -0.040271 0.174303 50 0 205
-0.058385 0.633629 0.377371 189 0 66
-0.282583 0.655685 -0.358287 204 0 51
0.032183 -0.069590 0.163382 46 0 209
0.219826 0.282836 0.355088 129 0 126
-0.848736 0.318294 -0.235793 239 0 16
-0.376361 -0.023084 0.360876 133 0 122
0.336858 0.362895 0.382821 160 0 95
0.000955 0.006998 -0.036127 9 0 246
0.118016 -0.684870 0.364147 200 0 55
0.170534 0.049043 -0.261202 81 0 174
0.006309 -0.205932 -0.281491 89 0 166
-0.065512 -0.710974 0.358287 204 0 51
-0.574031 0.607647 -0.297801 226 0 29
0.142062 -0.228780 0.318408 106 0 149
0.035914 -0.077659 -0.174303 50 0 205
0.577050 0.742451 -0.192410 245 0 10
-0.163811 -0.007172 0.250719 76 0 179
0.000778 -0.025389 0.082593 22 0 233
-0.746840 -0.663440 -0.026305 255 0 0
-0.292427 0.172837 0.348748 124 0 131
-0.007002 -0.000924 0.036127 9 0 246
-0.044358 -0.062537 0.163382 46 0 209
0.002726 0.000287 0.019392 5 0 250
0.110877 0.812417 -0.308435 223 0 32
-0.482523 -0.180956 -0.384176 164 0 91
-0.129414 -0.415551 -0.374709 146 0 109
0.254432 -0.165811 0.334520 115 0 140
0.174735 0.030898 -0.261202 81 0 174
-0.840992 0.477404 -0.145346 249 0 6
-0.000021 0.000038 0.001231 0 0 255
-0.211028 -0.514234 0.384785 172 0 83
-0.743395 0.660379 0.061158 254 0 1
-0.713828 -0.612102 -0.192410 245 0 10
-0.314732 0.806864 0.274698 232 0 23
-0.095518 0.404484 -0.370709 142 0 113
-0.056363 0.022270 0.141887 39 0 216
-0.000136 -0.000054 -0.002766 1 0 254
0.338593 -0.116937 -0.355088 129 0 126
0.534199 0.153629 0.384785 172 0 83
-0.071266 -0.956319 -0.161390 248 0 7
0.229598 0.369750 0.374709 146 0 109
-0.000344 0.000033 -0.004908 1 0 254
0.000000 0.000000 -0.000000 0 0 255
-0.348208 -0.144679 -0.360876 133 0 122
-0.395611 -0.418779 -0.384020 177 0 78
-0.004765 -0.010545 -0.049834 13 0 242
0.510295 -0.071920 0.384176 164 0 91
-0.000021 -0.000144 -0.002766 1 0 254
-0.000060 -0.000133 -0.002766 1 0 254
0.515338 -0.000000 0.384176 164 0 91
-0.823080 -0.567722 0.008775 255 0 0
0.960936 0.276353 0.008775 255 0 0
-0.000321 -0.000127 -0.004908 1 0 254
0.028346 -0.009790 0.091749 25 0 230
-0.730409 0.057645 0.351710 207 0 48
-0.355136 -0.046886 -0.355088 129 0 126
0.105643 -0.047183 0.207346 61 0 194
0.955076 0.151698 0.145346 249 0 6
-0.037543 0.015599 0.111025 30 0 225
0.208963 -0.169872 -0.318408 106 0 149
0.543636 0.115885 -0.384785 172 0 83
-0.330231 0.942799 -0.026305 255 0 0
0.705147 0.112001 0.358287 204 0 51
-0.266574 0.911893 0.177089 246 0 9
0.002726 -0.000287 -0.019392 5 0 250
-0.141156 0.083429 -0.250719 76 0 179
-0.670637 -0.685472 0.161390 248 0 7
-0.752049 -0.644876 0.078405 253 0 2
0.081915 0.126906 -0.240056 72 0 183
-0.818526 -0.564581 -0.061158 254 0 1
-0.535074 0.023427 -0.384834 168 0 87
0.876846 -0.076929 -0.262272 234 0 21
0.005812 0.013167 -0.057392 15 0 240
-0.182559 -0.057731 0.271471 85 0 170
-0.954604 0.194772 -0.128990 251 0 4
0.039202 -0.108858 0.207346 61 0 194
0.131094 -0.045275 0.229249 68 0 187
-0.236486 0.128826 -0.318408 106 0 149
-0.018028 0.036439 0.111025 30 0 225
-0.772155 0.474805 -0.235793 239 0 16
-0.000017 0.000040 -0.001231 0 0 255
0.853877 0.436485 -0.161390 248 0 7
-0.083027 0.650815 -0.373693 193 0 62
0.416113 0.127595 0.374709 146 0 109
0.001104 -0.000360 0.010987 3 0 252
0.251971 0.227809 -0.348748 124 0 131
-0.102565 -0.627993 0.377371 189 0 66
0.836895 -0.272733 -0.262272 234 0 21
0.112136 -0.155197 -0.271471 85 0 170
-0.150628 0.304463 0.348748 124 0 131
-0.019818 0.022507 -0.091749 25 0 230
0.313059 -0.174109 -0.355088 129 0 126
0.480353 -0.120113 -0.382821 160 0 95
0.410891 0.778425 -0.262272 234 0 21
0.844779 -0.529706 0.043779 255 0 0
-0.687288 -0.103006 0.364147 200 0 55
0.374504 -0.129339 -0.366091 138 0 117
-0.038606 0.979866 -0.112358 252 0 3
-0.373062 0.355525 -0.384176 164 0 91
-0.015435 -0.037611 -0.111025 30 0 225
-0.463614 0.173865 -0.382821 160 0 95
0.242210 -0.183203 -0.334520 115 0 140
-0.938566 -0.057565 0.192410 245 0 10
-0.013456 0.236308 -0.300648 98 0 157
0.507465 -0.089734 0.384176 164 0 91
0.058247 0.153274 0.250719 76 0 179
0.830290 -0.461769 0.177089 246 0 9
0.000647 0.000186 0.007651 2 0 253
0.076998 -0.369123 -0.360876 133 0 122
-0.059410 -0.297825 0.334520 115 0 140
-0.830507 -0.094890 -0.297801 226 0 29
-0.218066 0.422028 -0.380782 155 0 100
-0.000758 -0.001677 -0.014905 4 0 251
0.332039 0.829711 -0.249296 237 0 18
-0.153285 0.180350 0.300648 98 0 157
0.476596 0.798368 0.207322 243 0 12
-0.065204 0.082395 -0.196321 57 0 198
0.233075 -0.041214 0.300648 98 0 157
0.050123 -0.156119 0.250719 76 0 179
0.330931 0.076622 0.348748 124 0 131
-0.003511 0.001680 -0.024436 6 0 249
0.020650 -0.005163 -0.073796 20 0 235
-0.000131 -0.029989 -0.091749 25 0 230
-0.006578 -0.115514 0.207346 61 0 194
0.006098 0.006804 -0.042739 11 0 244
0.387538 -0.198102 0.374709 146 0 109
-0.083943 0.204553 0.291228 93 0 162
-0.000056 0.000341 -0.004908 1 0 254
-0.085437 0.061164 -0.196321 57 0 198
0.000394 0.000546 0.007651 2 0 253
0.893202 -0.417829 -0.095484 253 0 2
0.001624 0.000866 0.014905 4 0 251
-0.429793 -0.678820 0.318431 220 0 35
-0.175953 0.970274 0.095484 253 0 2
0.075173 -0.331263 -0.348748 124 0 131
0.949477 -0.033249 -0.177089 246 0 9
0.028762 0.284835 0.326685 111 0 144
-0.001404 -0.005135 -0.030020 8 0 247
0.568961 -0.090370 -0.384020 177 0 78
0.847125 -0.531177 -0.008775 255 0 0
0.183057 -0.056132 -0.271471 85 0 170
-0.623468 0.127209 0.377371 189 0 66
-0.490921 -0.214126 0.384834 168 0 87
0.953689 -0.100518 -0.161390 248 0 7
0.014022 0.003246 0.057392 15 0 240
-0.341213 -0.560381 0.373693 193 0 62
-0.000254 0.000234 -0.004908 1 0 254
0.403369 -0.163474 -0.374709 146 0 109
0.376646 -0.606559 -0.358287 204 0 51
0.849212 -0.059549 -0.286548 229 0 26
0.010482 -0.004903 -0.049834 13 0 242
-0.296213 -0.263134 -0.366091 138 0 117
-0.646943 -0.761175 0.026305 255 0 0
-0.000043 -0.000003 0.001231 0 0 255
-0.004945 0.016915 0.065387 17 0 238
0.601778 0.774268 0.112358 252 0 3
0.048888 -0.070219 -0.174303 50 0 205
0.155033 0.281653 -0.341883 120 0 135
0.104287 0.012841 -0.196321 57 0 198
0.009990 0.052467 -0.131382 36 0 219
0.326386 0.569144 0.373693 193 0 62
0.229069 -0.416158 0.380782 155 0 100
-0.515318 0.004510 -0.384176 164 0 91
0.011761 0.013124 -0.065387 17 0 238
0.063493 -0.042979 -0.163382 46 0 209
0.015646 0.114638 -0.207346 61 0 194
0.589724 0.238998 0.377371 189 0 66
-0.165278 -0.530710 0.384785 172 0 83
0.000008 0.000042 -0.001231 0 0 255
-0.130735 -0.720922 -0.351710 207 0 48
0.021894 0.454530 -0.378073 151 0 104
0.658117 -0.734352 -0.095484 253 0 2
-0.006404 -0.016418 0.065387 17 0 238
-0.564115 0.825556 -0.008775 255 0 0
0.001121 -0.000301 0.010987 3 0 252
-0.301146 0.514643 -0.382532 181 0 74
-0.878563 -0.053885 -0.262272 234 0 21
0.250349 -0.948131 -0.112358 252 0 3
-0.119197 -0.168048 0.281491 89 0 166
0.073610 0.728974 -0.351710 207 0 48
0.705147 -0.112001 -0.358287 204 0 51
-0.497130 -0.248660 0.384785 172 0 83
-0.000155 0.000655 0.007651 2 0 253
0.000103 0.000665 -0.007651 2 0 253
-0.352510 0.429775 -0.384785 172 0 83
-0.173843 0.958636 0.128990 251 0 4
0.510931 0.550423 -0.344424 211 0 44
-0.079810 -0.488669 -0.382821 160 0 95
-0.379227 0.348942 0.384176 164 0 91
-0.150995 0.003965 -0.240056 72 0 183
0.823435 0.557397 -0.061158 254 0 1
-0.372904 0.055888 0.360876 133 0 122
0.283663 0.151322 0.341883 120 0 135
-0.071500 -0.193224 -0.281491 89 0 166
0.526939 0.356693 0.377371 189 0 66
0.015127 0.066660 0.152565 43 0 212
-0.002324 -0.021158 -0.073796 20 0 235
0.849702 0.276907 -0.249296 237 0 18
-0.045650 -0.010149 -0.121084 33 0 222
-0.029508 0.135516 0.229249 68 0 187
0.024730 -0.376257 -0.360876 133 0 122
-0.298324 -0.902006 0.177089 246 0 9
-0.570501 0.804313 -0.095484 253 0 2
0.000056 0.001840 0.014905 4 0 251
0.817325 0.574372 -0.026305 255 0 0
0.028474 0.929368 -0.207322 243 0 12
-0.716943 0.636881 0.161390 248 0 7
-0.002818 -0.002685 0.024436 6 0 249
0.654465 0.730277 0.112358 252 0 3
-0.002359 -0.001395 0.019392 5 0 250
0.210346 0.243142 -0.341883 120 0 135
0.960685 -0.222431 -0.095484 253 0 2
-0.802673 -0.035143 -0.318431 220 0 35
-0.843035 0.333099 -0.235793 239 0 16
0.000345 -0.000018 -0.004908 1 0 254
0.073274 -0.044178 -0.174303 50 0 205
-0.099614 -0.033430 0.196321 57 0 198
-0.642338 -0.656547 0.221793 241 0 14
0.299707 -0.159881 -0.348748 124 0 131
0.387236 0.877311 0.161390 248 0 7
0.575300 0.030234 -0.384020 177 0 78
0.114834 0.014140 0.207346 61 0 194
-0.000000 0.000005 -0.000308 0 0 255
-0.148504 -0.027602 -0.240056 72 0 183
0.004116 0.085462 0.174303 50 0 205
0.754407 0.321223 0.308435 223 0 32
0.003756 -0.003772 -0.030020 8 0 247
-0.179172 0.101710 0.281491 89 0 166
-0.000026 0.000143 -0.002766 1 0 254
-0.231682 -0.101053 -0.309718 102 0 153
-0.428228 -0.354387 0.384785 172 0 83
0.009936 0.018824 -0.073796 20 0 235
0.160939 0.031373 -0.250719 76 0 179
0.904236 -0.063407 0.235793 239 0 16
0.107278 -0.124004 -0.250719 76 0 179
0.410034 -0.277559 0.382821 160 0 95
-0.005286 -0.007452 -0.042739 11 0 244
0.000017 -0.000040 0.001231 0 0 255
-0.630954 -0.742362 0.128990 251 0 4
-0.512007 -0.058500 0.384176 164 0 91
-0.003385 -0.001921 -0.024436 6 0 249
0.000001 0.000005 -0.000308 0 0 255
0.595245 0.159961 -0.380317 185 0 70
0.316246 -0.406893 0.384176 164 0 91
0.861726 0.349233 -0.207322 243 0 12
0.782095 0.082432 0.327772 217 0 38
0.984771 -0.156414 -0.043779 255 0 0
-0.005698 -0.076459 -0.163382 46 0 209
-0.379544 0.880666 -0.161390 248 0 7
0.000887 -0.001612 -0.014905 4 0 251
0.147958 0.305769 -0.348748 124 0 131
0.561522 0.409473 -0.364147 200 0 55
-0.024081 -0.008081 0.082593 22 0 233
0.085090 0.008968 0.174303 50 0 205
0.311766 -0.244507 0.366091 138 0 117
-0.252286 0.762805 0.318431 220 0 35
0.286282 0.948412 0.078405 253 0 2
-0.210793 0.266369 0.348748 124 0 131
-0.377054 0.003300 -0.360876 133 0 122
0.231137 -0.437884 -0.382821 160 0 95
0.222243 0.256894 0.348748 124 0 131
-0.104690 0.953240 -0.161390 248 0 7
-0.014886 0.015215 0.073796 20 0 235
0.848039 0.074402 -0.286548 229 0 26
0.575741 0.020161 0.384020 177 0 78
0.796847 -0.339294 -0.274698 232 0 23
-0.309614 -0.247226 0.366091 138 0 117
-0.290095 -0.783959 -0.297801 226 0 29
-0.709371 0.081050 0.358287 204 0 51
0.365973 0.613058 0.358287 204 0 51
-0.106188 0.124938 0.250719 76 0 179
0.206325 -0.683525 -0.358287 204 0 51
0.358884 0.167882 -0.366091 138 0 117
-0.071599 0.104782 -0.218334 64 0 191
0.687405 -0.690419 0.128990 251 0 4
0.094355 0.101648 0.229249 68 0 187
0.408952 0.884286 -0.128990 251 0 4
0.130281 -0.047562 0.229249 68 0 187
0.024531 -0.006592 -0.082593 22 0 233
-0.005254 -0.020627 -0.073796 20 0 235
0.444668 0.688901 0.308435 223 0 32
0.045082 0.118631 -0.218334 64 0 191
0.454701 0.472969 0.373693 193 0 62
-0.767682 -0.170681 -0.327772 217 0 38
0.673983 -0.726078 -0.078405 253 0 2
-0.000020 -0.000038 -0.001231 0 0 255
-0.747574 0.179996 0.336441 214 0 41
0.125666 0.017711 -0.218334 64 0 191
-0.000591 0.000322 -0.007651 2 0 253
0.524273 -0.426197 0.369284 196 0 59
0.044270 -0.232514 0.300648 98 0 157
-0.050853 -0.199654 0.281491 89 0 166
-0.005197 0.004782 -0.036127 9 0 246
0.118774 -0.071610 -0.229249 68 0 187
0.944321 -0.166983 0.161390 248 0 7
-0.413859 0.189202 -0.378073 151 0 104
-0.535786 0.211699 0.384020 177 0 78
0.737439 -0.480583 0.262272 234 0 21
0.000004 0.000003 -0.000308 0 0 255
-0.041824 0.020920 0.121084 33 0 222
-0.003351 0.006217 0.036127 9 0 246
0.063851 -0.766282 -0.336441 214 0 41
0.088487 0.074544 -0.207346 61 0 194
-0.024349 -0.007234 0.082593 22 0 233
-0.001815 0.000305 -0.014905 4 0 251
-0.000384 -0.001096 -0.010987 3 0 252
0.258951 -0.760568 -0.318431 220 0 35
0.226432 -0.922681 -0.177089 246 0 9
0.001777 0.000478 0.014905 4 0 251
-0.457665 -0.127293 -0.380782 155 0 100
0.032995 -0.033140 -0.121084 33 0 222
-0.518727 0.655491 0.297801 226 0 29
-0.542602 -0.120638 0.384785 172 0 83
0.001204 -0.001392 0.014905 4 0 251
0.005186 0.001201 -0.030020 8 0 247
-0.837783 -0.535590 -0.061158 254 0 1
-0.001080 -0.000427 -0.010987 3 0 252
-0.123622 -0.239248 0.318408 106 0 149
-0.708014 0.545332 -0.249296 237 0 18
-0.001665 -0.003518 0.024436 6 0 249
-0.104588 0.010099 -0.196321 57 0 198
0.011919 -0.008068 0.057392 15 0 240
0.131563 -0.498261 0.384176 164 0 91
0.568703 -0.705861 -0.235793 239 0 16
0.538582 0.803188 0.145346 249 0 6
0.005812 -0.013167 -0.057392 15 0 240
0.634680 0.231704 0.369284 196 0 59
0.277800 -0.504689 -0.384020 177 0 78
-0.358094 0.009403 0.355088 129 0 126
-0.843035 -0.333099 -0.235793 239 0 16
-0.138559 -0.006066 -0.229249 68 0 187
-0.002255 0.515333 0.384176 164 0 91
0.434636 -0.022842 -0.374709 146 0 109
0.264151 -0.442491 -0.384176 164 0 91
0.040431 0.004261 0.111025 30 0 225
-0.042142 0.064051 0.163382 46 0 209
0.346990 -0.686195 0.336441 214 0 41
-0.376398 -0.728450 -0.308435 223 0 32
0.731190 -0.513841 -0.249296 237 0 18
-0.832041 0.080341 -0.297801 226 0 29
-0.009526 -0.006570 -0.049834 13 0 242
-0.000485 0.001775 -0.014905 4 0 251
0.595912 -0.020868 -0.382532 181 0 74
-0.322035 -0.108074 -0.348748 124 0 131
-0.036175 0.635284 -0.377371 189 0 66
0.000859 -0.001628 -0.014905 4 0 251
0.126635 0.056559 -0.229249 68 0 187
0.163973 -0.098862 0.271471 85 0 170
0.889578 0.397310 0.128990 251 0 4
0.208095 -0.471455 -0.384176 164 0 91
0.775934 0.608538 0.095484 253 0 2
-0.727980 0.624237 -0.161390 248 0 7
0.000463 0.007047 -0.036127 9 0 246
-0.329781 -0.611735 -0.364147 200 0 55
0.001449 0.005122 0.030020 8 0 247
-0.421287 0.851545 0.177089 246 0 9
0.220803 0.011604 0.291228 93 0 162
-0.185870 0.502300 0.384834 168 0 87
0.271894 -0.961247 0.026305 255 0 0
-0.195083 -0.626415 -0.373693 193 0 62
-0.497977 0.585905 0.336441 214 0 41
0.000187 0.003888 -0.024436 6 0 249
0.001956 -0.040608 0.111025 30 0 225
-0.157287 -0.082146 0.261202 81 0 174
0.274592 0.285624 0.366091 138 0 117
-0.753181 0.427556 0.274698 232 0 23
-0.112317 -0.208345 0.300648 98 0 157
-0.204654 0.224379 0.334520 115 0 140
-0.205075 0.019802 -0.281491 89 0 166
0.015280 0.014819 -0.073796 20 0 235
0.098057 0.037755 -0.196321 57 0 198
-0.936113 0.208128 -0.161390 248 0 7
-0.151933 0.222347 0.318408 106 0 149
-0.021285 -0.000186 0.073796 20 0 235
0.871414 -0.484640 0.043779 255 0 0
0.115116 0.843478 0.286548 229 0 26
-0.101674 0.796983 -0.318431 220 0 35
0.182274 0.567735 -0.382532 181 0 74
-0.079986 0.728301 0.351710 207 0 48
0.003877 -0.000340 -0.024436 6 0 249
0.144670 0.077175 0.250719 76 0 179
0.040740 -0.096854 -0.196321 57 0 198
-0.973339 -0.042615 0.128990 251 0 4
-0.017307 0.012390 -0.073796 20 0 235
0.137502 -0.153430 0.281491 89 0 166
-0.032483 0.079155 -0.174303 50 0 205
0.709497 -0.411009 -0.308435 223 0 32
0.570380 -0.515686 -0.336441 214 0 41
-0.353704 -0.820710 -0.249296 237 0 18
-0.002738 0.000120 -0.019392 5 0 250
-0.731724 0.673288 -0.061158 254 0 1
0.921616 -0.265045 0.161390 248 0 7
-0.150105 0.183005 -0.300648 98 0 157
0.170168 0.693411 0.358287 204 0 51
0.248091 0.048362 0.309718 102 0 153
-0.112483 0.340099 0.355088 129 0 126
-0.172516 -0.041537 -0.261202 81 0 174
0.759418 0.120621 -0.336441 214 0 41
0.067208 0.296163 -0.334520 115 0 140
0.555854 -0.348540 0.373693 193 0 62
-0.004969 0.024910 -0.082593 22 0 233
0.000599 0.000306 0.007651 2 0 253
0.149569 -0.021080 -0.240056 72 0 183
-0.859355 -0.288396 0.235793 239 0 16
-0.721623 -0.663994 0.112358 252 0 3
0.017642 0.575823 -0.384020 177 0 78
0.007377 0.012358 -0.057392 15 0 240
-0.436126 -0.844041 -0.177089 246 0 9
-0.442835 -0.221502 0.382821 160 0 95
0.446649 0.087068 0.378073 151 0 104
0.002547 0.002944 -0.024436 6 0 249
-0.032281 -0.819312 0.308435 223 0 32
-0.020404 -0.006062 0.073796 20 0 235
0.218944 -0.030857 0.291228 93 0 162
-0.006616 0.060241 -0.141887 39 0 216
-0.587946 0.522290 -0.327772 217 0 38
0.853923 0.213524 -0.262272 234 0 21
-0.453850 0.197956 0.382821 160 0 95
0.000057 0.000134 0.002766 1 0 254
-0.143740 -0.988565 -0.026305 255 0 0
0.000375 -0.000559 0.007651 2 0 253
-0.000048 -0.000138 -0.002766 1 0 254
-0.071599 -0.104782 0.218334 64 0 191
0.071917 0.863084 0.274698 232 0 23
-0.500999 -0.284401 -0.384020 177 0 78
0.917507 -0.246562 -0.177089 246 0 9
-0.374591 -0.258376 0.378073 151 0 104
0.360501 -0.110542 0.360876 133 0 122
-0.008023 -0.004371 0.042739 11 0 244
-0.058970 -0.074517 0.185295 53 0 202
-0.012260 0.007539 -0.057392 15 0 240
-0.010419 0.009929 0.057392 15 0 240
-0.145523 -0.040475 -0.240056 72 0 183
0.742703 0.347428 0.308435 223 0 32
0.003689 -0.008359 0.042739 11 0 244
0.000861 -0.000779 -0.010987 3 0 252
-0.105801 -0.361921 -0.360876 133 0 122
0.293226 -0.472217 0.384785 172 0 83
-0.339659 0.414107 -0.384834 168 0 87
0.482425 -0.598775 -0.336441 214 0 41
-0.000000 -0.000000 -0.000000 0 0 255
-0.546513 -0.363010 0.373693 193 0 62
-0.212298 0.681693 0.358287 204 0 51
0.001877 -0.003410 -0.024436 6 0 249
0.785343 -0.041273 0.327772 217 0 38
0.077316 0.175166 0.271471 85 0 170
0.501181 -0.807112 0.177089 246 0 9
-0.000967 0.000643 0.010987 3 0 252
-0.003656 -0.003870 -0.030020 8 0 247
0.001487 -0.001084 0.014905 4 0 251
0.000343 0.000042 -0.004908 1 0 254
0.073087 0.276797 -0.326685 111 0 144
-0.332360 0.419988 0.384834 168 0 87
0.000002 -0.000005 -0.000308 0 0 255
-0.076522 0.038276 -0.174303 50 0 205
0.030596 -0.035367 -0.121084 33 0 222
0.029696 0.004185 -0.091749 25 0 230
0.003297 0.006246 -0.036127 9 0 246
0.184497 -0.172769 0.309718 102 0 153
-0.344935 -0.435878 0.384785 172 0 83
-0.220896 0.009671 0.291228 93 0 162
-0.590841 0.175531 -0.380317 185 0 70
-0.064694 0.195608 0.281491 89 0 166
0.823452 0.268353 0.274698 232 0 23
-0.113306 -0.262907 0.326685 111 0 144
-0.520456 -0.195182 0.384785 172 0 83
0.160729 0.075187 -0.261202 81 0 174
0.000042 0.000010 0.001231 0 0 255
0.002250 0.046710 0.121084 33 0 222
-0.381983 0.580572 0.364147 200 0 55
0.326454 0.093884 -0.348748 124 0 131
-0.010088 0.177159 0.261202 81 0 174
0.007588 0.115452 -0.207346 61 0 194
0.017451 -0.066089 -0.152565 43 0 212
-0.128349 0.643413 0.373693 193 0 62
0.013514 0.044769 -0.121084 33 0 222
-0.027017 -0.022358 0.101236 27 0 228
0.070279 0.592121 -0.382532 181 0 74
0.921549 0.373477 -0.061158 254 0 1
0.146285 -0.947748 -0.161390 248 0 7
-0.341716 -0.876042 0.192410 245 0 10
-0.161321 0.103132 0.271471 85 0 170
0.035493 0.049122 0.141887 39 0 216
0.924682 0.097461 -0.207322 243 0 12
0.341007 -0.330719 -0.380782 155 0 100
-0.821072 -0.275548 -0.274698 232 0 23
-0.035686 -0.905754 0.235793 239 0 16
-0.041586 -0.096494 -0.196321 57 0 198
0.990071 -0.034670 -0.078405 253 0 2
-0.177365 0.104831 0.281491 89 0 166
0.364100 -0.752448 -0.297801 226 0 29
-0.474583 0.020779 0.380782 155 0 100
-0.069466 0.632510 -0.377371 189 0 66
0.000083 -0.000120 -0.002766 1 0 254
-0.127245 0.295249 0.341883 120 0 135
-0.080483 -0.098123 -0.218334 64 0 191
0.362561 -0.716986 -0.318431 220 0 35
-0.029576 -0.004963 -0.091749 25 0 230
-0.250586 0.033083 0.309718 102 0 153
0.103021 0.052663 -0.207346 61 0 194
0.905841 0.209733 0.207322 243 0 12
-0.070378 -0.225985 -0.300648 98 0 157
0.384472 0.372873 -0.384834 168 0 87
0.000040 -0.000017 0.001231 0 0 255
0.007562 -0.576044 -0.384020 177 0 78
0.645194 0.506003 -0.308435 223 0 32
-0.089023 0.254159 -0.318408 106 0 149
0.320482 0.941290 -0.061158 254 0 1
-0.943918 -0.107848 -0.177089 246 0 9
0.014147 -0.021097 0.082593 22 0 233
0.000002 0.000005 -0.000308 0 0 255
0.000355 -0.000572 0.007651 2 0 253
-0.562581 0.638912 0.286548 229 0 26
-0.442835 0.221502 0.382821 160 0 95
0.279701 0.252880 0.360876 133 0 122
-0.329709 -0.891013 0.177089 246 0 9
0.057558 0.100368 0.207346 61 0 194
0.099860 -0.078317 -0.218334 64 0 191
0.001524 -0.001032 -0.014905 4 0 251
0.918143 -0.372097 -0.078405 253 0 2
0.000000 0.000000 0.000000 0 0 255
0.178683 -0.068799 -0.271471 85 0 170
-0.653215 -0.521590 -0.297801 226 0 29
0.000038 0.000020 -0.001231 0 0 255
0.035870 -0.019135 -0.111025 30 0 225
-0.000291 -0.000186 -0.004908 1 0 254
0.326663 -0.316808 -0.378073 151 0 104
0.833998 0.321119 0.249296 237 0 18
0.133964 0.981578 -0.078405 253 0 2
-0.544426 -0.739765 0.221793 241 0 14
-0.534384 -0.844012 0.026305 255 0 0
0.024531 0.006592 -0.082593 22 0 233
0.064974 0.988545 -0.078405 253 0 2
0.038069 -0.056772 0.152565 43 0 212
0.000961 -0.011532 -0.049834 13 0 242
-0.125834 0.986358 0.061158 254 0 1
0.652323 0.610856 0.249296 237 0 18
0.215451 -0.309454 -0.360876 133 0 122
0.023230 -0.033365 -0.111025 30 0 225
0.025385 -0.000889 -0.082593 22 0 233
-0.249084 -0.606968 -0.373693 193 0 62
0.130700 0.075714 0.240056 72 0 183
-0.000169 -0.000301 -0.004908 1 0 254
0.003267 0.004203 -0.030020 8 0 247
-0.503587 -0.860604 -0.043779 255 0 0
0.306206 -0.899360 -0.177089 246 0 9
-0.609555 -0.091356 0.380317 185 0 70
0.656031 0.658908 -0.207322 243 0 12
0.220972 -0.007738 -0.291228 93 0 162
-0.127790 -0.237048 0.318408 106 0 149
0.334294 -0.128715 0.355088 129 0 126
0.029675 0.027789 0.111025 30 0 225
0.284959 -0.944028 0.095484 253 0 2
-0.203591 -0.362328 -0.370709 142 0 113
0.352113 0.220787 0.370709 142 0 113
-0.312673 0.409645 -0.384176 164 0 91
0.675405 0.492519 0.297801 226 0 29
-0.000003 0.000004 -0.000308 0 0 255
0.020369 0.042095 -0.121084 33 0 222
-0.508821 -0.642974 -0.308435 223 0 32
-0.052660 -0.043580 -0.152565 43 0 212
-0.013771 0.010996 0.065387 17 0 238
0.183057 0.056132 -0.271471 85 0 170
-0.000688 -0.000935 -0.010987 3 0 252
0.006559 -0.034449 0.101236 27 0 228
0.000647 0.000965 -0.010987 3 0 252
-0.403538 0.491987 0.377371 189 0 66
-0.010392 0.474924 0.380782 155 0 100
-0.375876 -0.322310 -0.382821 160 0 95
-0.310717 0.276018 0.370709 142 0 113
-0.855561 0.466068 -0.128990 251 0 4
0.765342 0.461435 0.249296 237 0 18
0.332690 -0.177476 0.360876 133 0 122
-0.376361 0.023084 -0.360876 133 0 122
-0.997087 0.061155 -0.026305 255 0 0
-0.002451 0.006624 0.036127 9 0 246
-0.000233 -0.000255 -0.004908 1 0 254
-0.077268 0.055316 0.185295 53 0 202
0.571318 -0.820588 0.008775 255 0 0
-0.124338 0.085763 0.240056 72 0 183
0.894052 -0.291360 0.192410 245 0 10
0.678848 -0.221228 -0.358287 204 0 51
0.061420 0.059567 -0.174303 50 0 205
0.059906 0.593260 -0.382532 181 0 74
0.004820 -0.007762 0.042739 11 0 244
-0.104368 0.049940 -0.207346 61 0 194
0.006089 0.060297 -0.141887 39 0 216
-0.492050 0.840887 -0.128990 251 0 4
-0.085479 -0.003743 -0.174303 50 0 205
0.514628 0.027046 0.384176 164 0 91
-0.189823 0.025061 -0.271471 85 0 170
-0.000669 -0.000076 -0.007651 2 0 253
-0.919534 0.137814 0.207322 243 0 12
-0.038433 -0.046857 0.141887 39 0 216
-0.454900 0.011945 0.378073 151 0 104
-0.093428 0.017365 0.185295 53 0 202
0.952312 0.255916 -0.095484 253 0 2
-0.761275 0.468115 -0.249296 237 0 18
0.515153 -0.208776 0.384785 172 0 83
0.000467 -0.000485 -0.007651 2 0 253
-0.001712 -0.000676 0.014905 4 0 251
-0.008900 -0.015210 -0.065387 17 0 238
-0.006866 0.001653 0.036127 9 0 246
-0.000043 -0.000003 0.001231 0 0 255
0.056556 0.021776 -0.141887 39 0 216
0.093976 -0.688581 -0.364147 200 0 55
-0.542037 -0.333303 -0.377371 189 0 66
-0.000360 0.000569 0.007651 2 0 253
0.017563 -0.024308 0.091749 25 0 230
0.205509 -0.199309 0.326685 111 0 144
0.099350 0.180492 -0.281491 89 0 166
0.013958 -0.066914 -0.152565 43 0 212
-0.014109 0.038128 -0.111025 30 0 225
-0.028593 0.009042 -0.091749 25 0 230
0.204489 -0.316804 0.360876 133 0 122
0.126830 0.004441 0.218334 64 0 191
0.003689 0.003838 -0.030020 8 0 247
0.688251 0.251261 -0.351710 207 0 48
-0.013854 0.126149 0.218334 64 0 191
-0.803396 -0.163920 0.308435 223 0 32
-0.000608 0.001737 0.014905 4 0 251
0.882620 0.140189 -0.249296 237 0 18
-0.004094 -0.025069 -0.082593 22 0 233
0.000310 -0.000152 -0.004908 1 0 254
0.266439 -0.464611 -0.384834 168 0 87
-0.785995 0.233508 0.308435 223 0 32
-0.079981 -0.550066 0.384785 172 0 83
0.001934 -0.001942 0.019392 5 0 250
-0.088425 0.406094 -0.370709 142 0 113
0.021233 -0.001489 0.073796 20 0 235
0.000000 -0.000000 0.000000 0 0 255
0.314815 0.127585 0.348748 124 0 131
0.103133 0.020104 -0.196321 57 0 198
0.005093 0.029554 -0.091749 25 0 230
0.126372 -0.663729 0.369284 196 0 59
-0.048951 0.299721 -0.334520 115 0 140
0.696510 0.489470 -0.286548 229 0 26
-0.820864 0.524773 -0.128990 251 0 4
-0.634561 0.544131 0.297801 226 0 29
0.084920 -0.010456 -0.174303 50 0 205
-0.000132 -0.000660 -0.007651 2 0 253
-0.000002 -0.000005 0.000308 0 0 255
-0.021994 -0.048671 0.131382 36 0 219
-0.455475 0.810604 0.207322 243 0 12
0.996963 -0.017451 -0.043779 255 0 0
0.003689 0.008359 -0.042739 11 0 244
-0.206323 0.810048 0.297801 226 0 29
0.158006 -0.696283 0.358287 204 0 51
0.046700 -0.002454 0.121084 33 0 222
-0.080948 -0.049776 -0.185295 53 0 202
-0.310107 -0.509294 0.382532 181 0 74
0.347518 0.086897 -0.355088 129 0 126
-0.000841 -0.000801 0.010987 3 0 252
0.554870 -0.557303 0.327772 217 0 38
0.006988 0.005887 0.042739 11 0 244
-0.009955 0.454948 0.378073 151 0 104
0.027592 0.011749 -0.091749 25 0 230
0.159938 -0.278896 -0.341883 120 0 135
0.022648 -0.092289 0.185295 53 0 202
0.368076 -0.919762 0.078405 253 0 2
0.080906 0.387861 0.366091 138 0 117
-0.174136 -0.079609 -0.271471 85 0 170
0.011358 0.002214 0.049834 13 0 242
0.445920 0.258320 -0.384176 164 0 91
0.084614 -0.043253 0.185295 53 0 202
-0.118098 0.723100 -0.351710 207 0 48
0.135686 0.174579 0.291228 93 0 162
0.086497 0.139297 0.250719 76 0 179
-0.142453 -0.105802 0.261202 81 0 174
-0.039248 0.046178 -0.141887 39 0 216
0.459663 0.495192 0.369284 196 0 59
-0.005972 -0.020430 -0.073796 20 0 235
